# .PCD v0.7 - Point Cloud Data file format
VERSION 0.7
FIELDS x y z intensity
SIZE 4 4 4 4
TYPE F F F F
COUNT 1 1 1 1
WIDTH 1226
HEIGHT 1
VIEWPOINT 0 0 0 1 0 0 0
POINTS 1226
DATA ascii
-49.659302 -1.1124001 -0.70905399 0.513726
-80.600197 -1.80714 -0.75303102 0.027450999
-29.532101 -0.64245301 1.32268 0.027450999
-72.605698 1.58772 1.6245199 0.0666667
-20.4526 -0.43432599 1.8091 0.047058798
-31.5744 0.722431 2.23666 0.031372599
-28.985901 0.671951 2.7164199 0.062745102
-38.788898 2.6166501 3.74124 0.023529399
-28.167 1.92393 3.6989 0.078431398
-28.409599 1.94411 4.2287598 0.078431398
-28.8769 1.97867 4.7898002 0.117647
-7.6796999 0.16342901 -0.79558903 0
-8.2152796 0.172644 -0.802867 0
-8.8502102 0.183368 -0.81741798 0.0039215698
-9.5852699 0.195962 -0.83421302 0
-10.3979 0.69271898 -0.85156202 0
-11.431 0.75592101 -0.87863702 0
-12.6444 0.83042997 -0.90431601 0
-14.2513 0.928698 -0.95724601 0
-23.305201 0.43257901 -1.15121 0
-23.7869 3.6782 -1.1148601 0.023529399
-24.493299 3.78637 -0.74628001 0.086274497
-25.901699 1.64674 -0.68943799 0.117647
-24.709 3.82165 -0.314309 0.12548999
-43.140499 0.77942997 -1.18805 0.019607799
-46.274799 7.0562 -1.1920201 0.121569
-27.938499 1.7781301 0.141774 0
-29.525 -0.762308 0.257765 0.039215699
-29.514 -0.75717801 0.79215699 0.047058798
-29.4615 -0.750983 1.32453 0.0588235
-51.8941 0.95629197 1.6476099 0.047058798
-20.3748 -0.509354 1.8094 0.027450999
-157.623 16.771601 3.32549 1
-31.2528 0.59896398 2.2322099 0.0039215698
-28.760201 0.55966598 2.70947 0.062745102
-28.2404 1.81916 3.19468 0.0509804
-20.8255 1.36305 3.18852 0.047058798
-22.004999 1.43953 3.6700799 0.054901998
-22.427601 1.4687999 4.1131701 0.074509799
-7.6494999 0.137003 -0.78610402 0
-8.2003403 0.14472 -0.798253 0
-8.8352404 0.153446 -0.81304097 0.0039215698
-9.55863 0.163582 -0.82716799 0
-10.4039 0.65834397 -0.852211 0
-11.4137 0.71697003 -0.87416101 0
-12.6587 0.78944498 -0.906326 0
-14.1951 0.87862802 -0.94632798 0
-18.684099 1.99222 -1.0813 0
-23.3381 0.35785401 -1.15438 0
-23.7787 3.59865 -1.11216 0.0117647
-25.304701 3.82459 -0.82386702 0.101961
-25.942499 1.56552 -0.69205302 0.113725
-25.6441 3.87743 -0.38740599 0.137255
-39.0401 0.58512998 -0.91588801 0.043137301
-46.277 6.9059701 -1.18996 0.14902
-26.2316 -0.75920498 0.41632599 0.043137301
-29.5114 -0.85170698 0.79301602 0.0509804
-51.7477 0.78169203 0.72128499 0.0509804
-29.4709 -0.845667 1.32523 0.070588201
-157.64101 16.2528 0.51101398 0.054901998
-51.9687 0.79255003 1.6489 0.035294101
-20.333 -0.57394898 1.80979 0.035294101
-157.687 16.275999 3.32886 1
-31.2024 0.49829999 2.2321701 0.043137301
-30.876101 0.49870801 2.78303 0.062745102
-28.186001 1.72526 3.19225 0.0588235
-20.817499 1.29524 3.18819 0.054901998
-21.8859 1.36148 3.6598401 0.0509804
-21.8323 1.36125 4.0507798 0.074509799
-7.6575499 0.106786 -0.78816998 0
-8.2046099 0.112452 -0.79908103 0
-8.82409 0.118716 -0.809654 0
-9.5785103 0.12647299 -0.83170199 0
-10.4062 0.61796099 -0.85191 0
-11.4201 0.67309201 -0.87467098 0
-12.6301 0.73912501 -0.89978498 0
-14.2178 0.82539397 -0.94944698 0
-23.2995 0.26966801 -1.14891 0
-25.743099 3.7874401 -1.3369499 0.0039215698
-26.1817 3.8527501 -0.907489 0.101961
-25.912201 1.46627 -0.68809801 0.156863
-26.917299 3.96104 -0.487091 0.17647099
-35.769199 0.40647501 -0.69859201 0.043137301
-46.3573 6.7419701 -1.19239 0.21568599
-26.0928 -0.85295802 0.42372799 0.0509804
-29.5399 -0.96303999 0.79306197 0.047058798
-51.822102 0.59068298 0.721533 0.039215699
-20.125299 -0.64714003 1.44267 0.043137301
-157.66701 15.6697 0.51507801 0.0588235
-74.269798 0.839275 1.6292599 0.0117647
-20.3146 -0.64999199 1.8104 0.031372599
-157.729 15.6945 3.33252 1
-31.2078 0.38196799 2.2332001 0.047058798
-30.8016 0.38272899 2.7813599 0.0588235
-28.156099 1.6180201 3.19117 0.043137301
-21.073 1.23084 3.2062399 0.082352899
-21.743299 1.27119 3.6475999 0.0509804
-21.848801 1.27999 4.05264 0.0588235
-7.6463399 0.076419003 -0.78444099 0
-8.2125998 0.080173798 -0.80100298 0
-8.8128204 0.084069103 -0.80626601 0
-9.5633297 0.089039102 -0.82751399 0
-10.4161 0.57795399 -0.85341603 0
-11.4146 0.62859702 -0.87266099 0
-12.6444 0.691163 -0.90173602 0
-14.2325 0.771613 -0.95115203 0
-26.1043 2.55142 -1.67301 0
-23.284401 0.181915 -1.1462801 0
-25.7213 3.6858799 -1.3322999 0.0117647
-26.4795 2.59004 -1.23748 0
-27.816401 3.9797201 -1.06484 0.086274497
-25.9293 1.36966 -0.68844199 0.019607799
-36.687 0.274212 -1.41965 0
-28.045401 4.0150299 -0.57509202 0.2
-33.762798 0.26007399 -0.56498402 0.0509804
-46.4053 6.5730801 -1.19285 0.0509804
-26.0415 -0.948955 0.42692399 0.0509804
-94.096497 4.8381701 -1.78303 0.0156863
-69.406898 -2.54337 -0.40652201 0.0078431396
-48.072498 0.372702 0.79312599 0.0039215698
-20.0147 -0.71901298 1.44471 0.0117647
-157.70799 15.0882 0.51906502 0.062745102
-74.764297 0.568515 1.63111 0.0117647
-20.5478 -0.73510998 1.81236 0.039215699
-157.774 15.1134 3.3362601 1
-31.528799 0.26788199 2.2395501 0.0509804
-28.1283 0.248126 2.6901 0.039215699
-28.396999 1.52496 3.20418 0.043137301
-21.0453 1.15 3.2046199 0.054901998
-21.855101 1.19512 3.6575999 0.054901998
-21.424101 1.1757801 4.0082302 0.062745102
-7.6503201 0.050480202 -0.78538001 0
-8.21276 0.052448701 -0.80076897 0
-8.7975302 0.0544287 -0.80188501 0
-9.5867996 0.057117499 -0.83305502 0
-10.4256 0.543661 -0.854963 0
-11.4321 0.59153098 -0.87572998 0
-12.6504 0.64969099 -0.902192 0
-14.2387 0.72514999 -0.95150203 0
-26.195101 2.4749999 -1.68294 0.0117647
-23.304701 0.106888 -1.14801 0
-26.5944 2.5146599 -1.24852 0
-30.0026 4.1854501 -1.27599 0.0666667
-25.9692 1.28798 -0.691037 0.0156863
-34.654701 0.15042999 -1.24845 0.023529399
-30.049299 4.19556 -0.73285103 0.184314
-26.8241 1.33202 -0.28059 0
-31.2848 0.143757 -0.400567 0.043137301
-26.0303 -1.03228 0.42808399 0.0509804
-70.605003 -2.8115399 -0.440777 0.109804
-44.406101 0.20604201 0.86273599 0.027450999
-71.651299 -2.84149 0.80487603 0.031372599
-157.75 14.5906 0.52244401 0.0588235
-74.777496 0.33195299 1.6331 0.035294101
-20.145599 -0.78555399 1.81085 0.043137301
-157.836 14.6175 3.3397801 1
-31.541401 0.16715699 2.2406001 0.054901998
-28.0809 0.157858 2.6891999 0.0509804
-30.197001 1.52071 3.29811 0.054901998
-21.000799 1.0799 3.2018001 0.062745102
-21.854601 1.12462 3.6577799 0.0588235
-21.431499 1.10704 4.0091701 0.0588235
-7.6427398 0.020211101 -0.78280598 0
-8.2012997 0.020123901 -0.79720598 0
-8.8130703 0.0199125 -0.805722 0
-9.5635996 0.019772099 -0.82692701 0
-10.443 0.50386101 -0.85827202 0
-11.4498 0.54804403 -0.87874699 0
-12.633 0.60023499 -0.89795899 0
-14.2137 0.66952801 -0.946154 0
-23.3367 0.019191699 -1.15106 0
-31.8927 4.3206801 -1.45776 0.0156863
-26.025499 1.19282 -0.69495201 0.0117647
-31.541901 0.0225037 -0.98679399 0.035294101
-31.914499 4.32761 -0.879125 0.203922
-26.828699 1.2315 -0.27982 0
-31.1493 0.026934801 -0.39062399 0.043137301
-32.793301 4.4472899 -0.35112101 0.047058798
-26.022301 -1.12964 0.42918801 0.0509804
-81.547699 3.64117 -1.31599 0.0117647
-70.801903 -3.0815401 -0.44457701 0.031372599
-44.3064 0.041177601 0.86599898 0.0509804
-21.823299 -0.938039 1.42357 0.039215699
-157.791 14.0092 0.52648097 0.0588235
-36.874199 0.046058599 1.66818 0.031372599
-21.796801 -0.93316197 1.82043 0.031372599
-157.84801 14.0336 3.3433101 1
-31.753599 0.049629301 2.2451799 0.0509804
-23.319901 0.050200101 2.52563 0.039215699
-30.2101 1.40845 3.2993901 0.070588201
-21.0084 1.00115 3.2026801 0.109804
-21.444401 1.02402 3.6222701 0.054901998
-21.292101 1.02016 3.9947701 0.062745102
-7.62356 -0.0099366698 -0.77675599 0
-8.2051001 -0.0122012 -0.798024 0
-8.8091602 -0.0146126 -0.80439299 0
-9.5829496 -0.017628999 -0.83144802 0
-10.4642 0.46408901 -0.86248302 0
-11.4829 0.50504303 -0.88511503 0.0039215698
-12.6508 0.552293 -0.90067101 0
-14.2239 0.61548603 -0.94714302 0
-18.6374 1.64175 -1.06761 0
-25.9119 2.25316 -1.64363 0.0078431396
-23.308701 -0.068476602 -1.1469899 0
-33.129799 4.3544998 -2.17946 0.0117647
-26.984501 2.34636 -1.28756 0
-31.920099 4.2030001 -1.4582 0.027450999
-26.1052 1.09821 -0.70100802 0.0078431396
-29.799801 -0.088196002 -0.84004498 0.031372599
-33.737598 4.4404402 -1.02186 0.141176
-26.8967 1.13352 -0.28365099 0
-31.0972 -0.089223899 -0.386206 0.047058798
-34.722 4.5706501 -0.46792001 0.0588235
-21.811399 -1.02722 0.63113099 0.023529399
-127.056 10.7946 -3.7964699 1
-73.823997 3.02882 -1.0297199 0.0078431396
-21.819 -1.02382 1.02836 0.035294101
-36.815498 -0.096652798 1.00649 0.035294101
-21.8116 -1.01972 1.42445 0.047058798
-157.83701 13.4284 0.53049999 0.0509804
-36.905899 -0.091246203 1.66934 0.031372599
-20.3547 -0.94744903 1.81344 0.027450999
-157.88699 13.4521 3.3471799 1
-23.542601 -0.0420512 2.1075599 0.031372599
-27.945 -0.0515274 2.6863 0.0509804
-29.580299 1.26981 3.2672801 0.074509799
-20.8722 0.916462 3.1935799 0.054901998
-23.008499 1.00781 3.7591801 0.027450999
-20.778799 0.918854 3.9411399 0.0666667
-7.6463799 -0.0403363 -0.78344297 0
-8.2126398 -0.044589799 -0.79993701 0
-8.81285 -0.049179401 -0.80512601 0
-9.5633602 -0.054823101 -0.82628399 0
-10.4347 0.42239299 -0.85492897 0
-11.4612 0.45987901 -0.87973702 0.0078431396
-12.6566 0.50381303 -0.90106398 0
-14.1748 0.55928397 -0.937563 0
-23.379801 -0.15673999 -1.15475 0
-35.010899 4.4628201 -2.3933599 0
-27.7917 -0.188437 -1.17685 0
-31.9076 4.0802698 -1.45478 0.019607799
-26.1647 1.00231 -0.70526099 0.0078431396
-28.376301 -0.188586 -0.72006798 0.043137301
-35.466999 4.5281 -1.15697 0.16470601
-27.1518 1.04185 -0.30100301 0
-31.040701 -0.20497 -0.38151899 0.0509804
-36.129101 4.6146598 -0.55251497 0.16470601
-21.7395 -1.10581 0.63515103 0.027450999
-73.962303 2.76069 -1.03228 0.0117647
-21.771099 -1.10364 1.03046 0.035294101
-96.079002 -0.661834 -0.090789102 0.0156863
-20.002001 -1.0098799 1.44744 0.043137301
-126.755 -0.86382699 1.5986 0.035294101
-29.535101 -1.48972 1.8640701 0.0509804
-157.935 12.8715 3.3512101 0.074509799
-23.802099 -0.132162 2.11273 0.027450999
-23.695101 -0.127268 2.5401399 0.0509804
-29.237301 1.14651 3.2500801 0.054901998
-21.1145 0.84695101 3.21086 0.062745102
-21.3832 0.860421 3.6176 0.054901998
-20.781799 0.84079403 3.94175 0.070588201
-7.6308498 -0.066089801 -0.77858502 0
-8.2008696 -0.072171301 -0.796408 0
-8.8010101 -0.078647003 -0.801772 0
-9.5825005 -0.087027602 -0.83084601 0
-10.4359 0.387683 -0.85465598 0
-11.4469 0.42144299 -0.87608498 0.0078431396
-12.662 0.462248 -0.90150702 0
-14.1568 0.51218498 -0.93367702 0.0039215698
-18.6362 1.50976 -1.06499 0
-23.343399 -0.231723 -1.14984 0
-37.030899 4.5981598 -1.95044 0
-26.2593 0.92122602 -0.71283799 0.0078431396
-26.7054 -0.261401 -0.579638 0.039215699
-37.480099 4.6575499 -1.3147 0.17254899
-28.2076 0.98953402 -0.37629801 0
-30.983999 -0.30376601 -0.376973 0.0509804
-38.0854 4.7353501 -0.67096198 0.203922
-21.7279 -1.1755 0.63620299 0.027450999
-73.667 2.5162799 -1.01931 0.0117647
-21.827299 -1.17708 1.02934 0.0156863
-95.952499 -0.96420503 -0.085846201 0.0156863
-20.034599 -1.07644 1.44762 0.027450999
-126.819 -1.26442 1.6020401 0.035294101
-30.013399 -1.61027 1.86761 0.031372599
-31.8799 -0.289913 2.2502699 0.047058798
-23.7824 -0.20428599 2.5438499 0.0588235
-29.128799 1.04918 3.2450099 0.054901998
-20.809799 0.76842803 3.18999 0.031372599
-22.5644 0.832151 3.7211201 0.090196103
-20.927299 0.77882099 3.95731 0.054901998
-7.6496401 -0.096611299 -0.784109 0
-8.2081804 -0.104596 -0.79831499 0
-8.8353796 -0.113703 -0.81075799 0
-9.5937004 -0.124579 -0.83342099 0
-10.4138 0.34652501 -0.84890902 0
-11.4483 0.37723699 -0.87573397 0.0078431396
-12.6674 0.41370001 -0.90189302 0
-14.194 0.45906001 -0.93958402 0.0039215698
-25.8627 1.9699399 -1.6327 0.16078401
-23.3344 -0.31941801 -1.14812 0
-27.7777 -0.38161501 -1.17395 0
-39.550499 4.7544899 -2.1924901 0
-25.5284 -0.344338 -0.48048499 0.039215699
-40.2295 4.8396201 -1.5302401 0.074509799
-30.9706 -0.41934901 -0.375168 0.054901998
-40.2159 4.8425899 -0.79964602 0.21568599
-21.823099 -1.26305 0.63223302 0
-73.7995 2.24774 -1.02168 0.0117647
-33.149101 -0.43674499 1.07758 0.0156863
-20.046301 -1.15286 1.44815 0.035294101
-33.162899 -0.43166 1.67553 0.019607799
-29.763599 -1.70829 1.86735 0.043137301
-31.498501 -0.40355101 2.2448699 0.027450999
-23.5415 -0.29019499 2.53632 0.062745102
-29.1283 0.94035202 3.2456601 0.0509804
-21.019699 0.69654399 3.20507 0.027450999
-23.0331 0.76185799 3.7625101 0.047058798
-20.6912 0.69284999 3.9328699 0.078431398
-7.64152 -0.12673999 -0.78152502 0
-8.1922998 -0.136621 -0.793648 0
-8.8271198 -0.14817899 -0.80838698 0
-9.5970001 -0.162062 -0.83405697 0
-10.4111 0.306012 -0.84768099 0
-11.43 0.33254501 -0.871189 0.0078431396
-12.657 0.364728 -0.899189 0
-14.2152 0.40527499 -0.94266897 0
-25.849899 1.87147 -1.62951 0.45490199
-26.936501 -0.47021401 -1.0879 0.035294101
-42.2379 4.9113002 -2.45052 0.0039215698
-24.717899 -0.425336 -0.412038 0.039215699
-42.168499 4.9089699 -1.68137 0.039215699
-30.940901 -0.53454798 -0.37230501 0.047058798
-44.287399 5.1556501 -1.04705 0.30588201
-49.531502 1.33509 -1.02127 0.035294101
-52.217899 -3.22141 -0.816724 0.094117597
-73.571404 1.9688801 -1.01088 0.062745102
-97.911903 -6.02456 -1.2453901 0.023529399
-33.1432 -0.56025898 1.07875 0
-29.757 -1.8194 1.86843 0.0509804
-124.477 8.8457804 3.0110099 0.031372599
-31.192801 -0.51572198 2.2407401 0.035294101
-23.684 -0.38094801 2.5420899 0.062745102
-28.975599 0.82747602 3.23842 0.031372599
-20.742701 0.61003298 3.1862299 0.043137301
-20.7651 0.61403698 3.56477 0.0509804
-20.709299 0.61554497 3.9351699 0.0509804
-7.62955 -0.152404 -0.777821 0
-8.1994696 -0.16445699 -0.795591 0
-8.8420095 -0.178186 -0.81225097 0
-9.5769901 -0.19369601 -0.828933 0
-10.4197 0.27154499 -0.84921002 0
-11.4231 0.29453999 -0.86920702 0
-12.6816 0.32354701 -0.90348101 0
-14.2439 0.35928699 -0.94721901 0
-25.774099 1.77947 -2.08814 0
-25.8596 1.78855 -1.62941 0.39607799
-25.3673 -0.52295297 -0.92822701 0.035294101
-23.680201 -0.48269299 -0.32477701 0.039215699
-42.195599 4.7758398 -1.68145 0.0117647
-29.586201 -0.60486197 -0.28245401 0.027450999
-50.343102 5.68468 -1.41587 0.45490199
-46.285 1.10353 -0.84350199 0.043137301
-52.1078 -3.3808701 -0.81035101 0.133333
-73.888901 1.74299 -1.02039 0.0117647
-67.689003 -4.3798099 -0.33959299 0.086274497
-63.631901 -4.1061602 0.91843599 0.0078431396
-20.4617 -0.398554 1.68621 0.031372599
-20.3785 -1.31147 1.81716 0.0039215698
-124.844 8.4758997 3.01741 0.039215699
-23.649599 -0.46064901 2.1131301 0.039215699
-23.6905 -0.457223 2.5430501 0.070588201
-28.985901 0.73496902 3.2395899 0.0588235
-20.7803 0.544047 3.18928 0.043137301
-20.519699 0.541237 3.54372 0.054901998
-20.5956 0.54607803 3.9235899 0.0588235
-7.6633301 -0.183531 -0.78796703 0
-8.2064505 -0.19695701 -0.79749101 0
-8.8103399 -0.212018 -0.80368501 0
-9.5567598 -0.23052999 -0.82375997 0
-10.405 0.23083 -0.84526402 0
-11.428 0.25049299 -0.86968702 0
-12.667 0.27453399 -0.89999902 0
-14.2293 0.30454299 -0.94396102 0
-25.7883 1.68317 -2.0885701 0
-25.854099 1.69072 -1.6272 0.196078
-23.6863 -0.57578701 -0.75723201 0.031372599
-53.038799 5.77144 -3.4916999 0.043137301
-23.4431 -0.56578302 -0.304344 0.043137301
-53.073002 5.7822299 -2.53877 0.290196
-26.730801 -0.64433998 -0.093911298 0.0509804
-53.110699 5.79246 -1.5827 0.76078397
-46.049099 0.92708403 -0.82910103 0.043137301
-63.746399 -4.37286 -1.36357 0.0078431396
-73.942703 1.47088 -1.01992 0.0117647
-67.684402 -4.6308599 -0.33748701 0.074509799
-29.544001 -0.701626 1.14689 0.035294101
-20.364 -0.473268 1.68696 0.0509804
-20.381399 -1.3887399 1.81796 0.054901998
-23.6635 -0.54973698 2.1142001 0.043137301
-15.9394 -0.359965 2.27441 0.0509804
-28.7486 0.62199903 3.2279799 0.039215699
-20.7181 0.464645 3.1854601 0.039215699
-20.358 0.460787 3.5300601 0.0509804
-20.5814 0.46836501 3.92255 0.039215699
-7.6395798 -0.213163 -0.78074801 0
-8.1940804 -0.228929 -0.79391402 0
-8.8326197 -0.247252 -0.80956203 0
-9.5674295 -0.26815099 -0.82632399 0
-10.4291 0.19077501 -0.85035598 0
-11.4171 0.206193 -0.86681098 0
-12.6639 0.22580101 -0.89882898 0
-14.2224 0.25002399 -0.94210798 0
-25.7785 1.58539 -2.0855801 0
-25.864 1.5939 -1.62699 0.098039202
-21.7829 -0.61307901 -0.961146 0
-28.832001 1.77267 -1.47708 0
-22.681499 -0.63584 -0.65485799 0.035294101
-23.2176 -0.64748299 -0.28491801 0.0509804
-43.6745 0.71289498 -1.4849 0.0039215698
-26.117701 -0.72702402 -0.0528914 0.054901998
-53.1712 5.5996099 -1.58385 0.047058798
-46.012199 0.755467 -0.82553101 0.043137301
-51.701099 0.85094601 -0.206139 0.043137301
-63.874401 -4.6077499 -0.22186901 0.078431398
-29.437201 -0.80906498 1.1497999 0.047058798
-124.758 -8.9734201 0.18209299 0.023529399
-81.832802 4.9644499 1.10746 0.0117647
-29.4384 -0.80425501 1.68208 0.0588235
-20.403999 -1.46749 1.81888 0.031372599
-23.817101 -0.64283198 2.1176701 0.043137301
-15.9498 -0.42073399 2.2753799 0.0588235
-28.199301 0.50569302 3.20013 0.070588201
-20.472099 0.38268399 3.1688299 0.043137301
-20.4112 0.38510299 3.5352199 0.043137301
-20.527 0.39009601 3.91733 0.0588235
-7.65413 -0.2396 -0.78514099 0
-8.1971102 -0.25672299 -0.794756 0
-8.8163004 -0.27640799 -0.80516499 0
-9.5703697 -0.30026001 -0.82700002 0
-10.4491 0.156297 -0.85458899 0
-11.4176 0.16839799 -0.86649799 0
-12.6527 0.183957 -0.89617002 0
-14.2231 0.20341399 -0.94172198 0
-18.7542 1.11132 -1.07513 0
-25.861 1.5102299 -1.62537 0.031372599
-22.9321 -0.72051698 -1.0976 0.0039215698
-22.0469 -0.68871802 -0.59012502 0.031372599
-157.189 15.8271 -13.562 0.41568601
-22.729401 -0.70679599 -0.243669 0.0588235
-39.6991 0.52543402 -1.19748 0.023529399
-25.832001 -0.80194199 -0.0335191 0.047058798
-58.758202 5.9895201 -1.92293 0.078431398
-39.128899 0.52436799 -0.451103 0.031372599
-51.699402 0.68661201 -0.204634 0.047058798
-63.987202 -4.81984 -0.22365101 0.074509799
-29.4744 -0.90458202 1.14993 0.043137301
-83.185699 4.7813802 1.09979 0.090196103
-20.288 -0.613446 1.6883 0.035294101
-20.395201 -1.53304 1.81952 0.019607799
-90.734001 5.2210999 2.6656301 0.019607799
-29.631201 -0.89968503 2.21806 0.023529399
-13.6348 -0.40127099 2.19525 0.043137301
-20.4877 0.31380099 2.7986 0.0509804
-20.313499 0.31456801 3.1582401 0.054901998
-20.444 0.31975701 3.5385499 0.047058798
-20.476299 0.32327399 3.9124401 0.0666667
-7.6416602 -0.26946801 -0.78139102 0
-8.1883698 -0.28872299 -0.79227 0
-8.8113098 -0.310821 -0.80381602 0
-9.5613899 -0.33729401 -0.82472301 0
-10.4261 0.115583 -0.84882802 0
-11.4337 0.124418 -0.86948103 0
-12.6572 0.135362 -0.89653599 0
-14.2473 0.149212 -0.94548798 0
-21.6511 -0.76094502 -0.94462597 0.019607799
-20.437401 -0.71430898 -0.426633 0.027450999
-157.282 15.2513 -13.5616 0.44705901
-22.686701 -0.790874 -0.23955899 0.054901998
-38.112801 0.36421999 -1.08202 0.031372599
-25.6294 -0.89172399 -0.019532301 0.047058798
-59.2407 5.81639 -1.94963 0.0039215698
-38.894798 0.37672299 -0.437123 0.035294101
-63.953098 -5.0552301 -0.220799 0.0509804
-29.558701 -1.0177701 1.14933 0.0156863
-73.124901 3.9405 1.17408 0.0078431396
-20.197599 -0.68679601 1.68905 0.035294101
-90.528702 4.8747001 2.6657701 0.023529399
-30.410999 -1.03745 2.2325301 0.043137301
-13.6371 -0.45340699 2.1958699 0.0509804
-28.030001 0.308494 3.19279 0.082352899
-20.306299 0.238084 3.15832 0.0509804
-20.421 0.242663 3.5371001 0.047058798
-20.8988 0.25053099 3.9574201 0.047058798
-7.6405602 -0.29971799 -0.781111 0
-8.20257 -0.321605 -0.79635 0
-8.82936 -0.346145 -0.808653 0
-9.5639095 -0.37473899 -0.82534403 0
-10.442 0.075176999 -0.85210198 0
-11.4301 0.080248803 -0.86827201 0
-12.6261 0.086603299 -0.889961 0
-14.2359 0.094696 -0.94292003 0
-18.761801 0.96930099 -1.07406 0
-21.544901 -0.83845598 -0.93158603 0.019607799
-20.128401 -0.77934903 -0.394914 0.027450999
-26.207199 2.5178499 -0.88656998 0.031372599
-22.2136 -0.85776299 -0.199564 0.047058798
-34.543098 0.205125 -0.82406199 0.031372599
-25.470301 -0.98174697 -0.0084320297 0.047058798
-157.64799 14.7413 -7.94838 0.30588201
-35.229301 0.213797 -0.237399 0.023529399
-40.206699 0.244582 0.21690001 0.035294101
-63.766701 -5.2779298 -0.21342701 0.070588201
-71.476303 -2.7490301 0.38463899 0.101961
-74.556999 3.74033 1.16603 0.090196103
-20.1308 -0.760414 1.68979 0.035294101
-15.4 -1.27675 1.79239 0.074509799
-83.650597 4.2000399 2.5950501 0.141176
-21.7745 -0.82000703 2.0850101 0.031372599
-13.3915 -0.49611601 2.18784 0.0509804
-28.3902 0.205918 3.21244 0.098039202
-22.461599 0.174641 3.30952 0.0117647
-20.3936 0.165718 3.53531 0.0509804
-14.3198 0.13045301 3.2660799 0.0588235
-7.6202302 -0.32911 -0.77504498 0
-8.2051201 -0.35408199 -0.79714298 0
-8.83183 -0.38091999 -0.80936098 0
-9.5624199 -0.41203499 -0.82499599 0
-10.4305 0.0346599 -0.84904802 0
-11.442 0.0361077 -0.87040901 0
-12.6616 0.038082801 -0.89648402 0
-14.2046 0.040260199 -0.93683398 0
-18.6821 0.89456999 -1.0616 0
-21.323299 -0.91022098 -0.90484899 0.0117647
-25.280399 2.3331299 -1.25658 0
-19.6124 -0.83322001 -0.34227899 0.031372599
-26.1805 2.4163699 -0.88245702 0.0078431396
-22.0788 -0.93572301 -0.187824 0.047058798
-31.275999 0.072577201 -0.58811301 0.039215699
-25.5263 -1.0798301 -0.0114648 0.039215699
-34.954201 0.082136102 -0.22137301 0.027450999
-82.110001 3.78649 -1.82823 0.0156863
-40.095299 0.094909102 0.222238 0.039215699
-63.3843 -5.48248 -0.20025 0.047058798
-71.861298 -3.02984 0.37989199 0.031372599
-20.179701 -0.83844 1.69047 0.031372599
-20.5679 -1.77978 1.82295 0.027450999
-74.902901 3.4904399 2.5041001 0.0156863
-20.2208 -0.83671498 2.0590301 0.047058798
-13.4254 -0.54872602 2.18958 0.0588235
-20.509399 0.082624398 2.80159 0.023529399
-22.422001 0.090280198 3.30744 0.023529399
-20.4058 0.089074597 3.5369999 0.054901998
-14.1807 0.075647302 3.2519 0.082352899
-7.6458802 -0.356251 -0.78289801 0
-8.2154503 -0.38233101 -0.80016601 0
-8.8266802 -0.410404 -0.80805099 0
-9.5687799 -0.44436699 -0.82662898 0
-10.4032 5.64605e-05 -0.84242803 0
-11.4342 -0.0017397701 -0.868411 0
-12.6577 -0.00360983 -0.89535701 0
-14.2243 -0.0063497601 -0.939951 0
-18.7006 0.83459699 -1.0634 0
-21.981501 0.97363198 -1.13272 0
-19.836399 -0.91027302 -0.72759402 0.035294101
-27.0581 1.18845 -1.27908 0
-19.295601 -0.88219303 -0.309892 0.031372599
-25.9618 2.3127899 -0.86005402 0.0117647
-32.198799 -0.034425799 -1.23603 0.0156863
-21.964199 -1.00182 -0.177858 0.043137301
-26.300301 2.3455901 -0.41474399 0
-30.913 -0.026845001 -0.561171 0.043137301
-21.7866 -0.99027997 0.234363 0.031372599
-34.850399 -0.029352801 -0.214802 0.027450999
-36.797501 -0.027275 0.34313801 0.031372599
-63.7052 -5.7137098 -0.208242 0.0117647
-104.364 4.4798298 -0.91047001 0.027450999
-21.807301 -0.98122901 1.29317 0.035294101
-21.7712 -0.97584599 1.69036 0.031372599
-20.665701 -1.85537 1.82424 0.0509804
-74.209999 3.22346 2.49842 0.086274497
-20.197901 -0.90107501 2.0592999 0.039215699
-13.3995 -0.59156102 2.1891501 0.074509799
-20.453501 0.0165495 2.7992301 0.054901998
-20.430901 0.019752501 3.1688199 0.039215699
-20.362 0.023344301 3.53373 0.0588235
-13.9659 0.0295259 3.2296901 0.086274497
-7.62534 -0.38553101 -0.776829 0
-8.1947203 -0.413697 -0.794388 0
-8.8173399 -0.44460201 -0.80566102 0
-9.57866 -0.482279 -0.82917601 0
-10.4265 -0.040482402 -0.84749901 0
-11.4458 -0.045977701 -0.87054199 0
-12.6536 -0.052226499 -0.89416802 0
-14.2044 -0.060603 -0.93596798 0
-18.620399 0.76066202 -1.05093 0
-22.0404 0.89290899 -1.13905 0
-18.801399 -0.93354797 -0.60414499 0.035294101
-26.569401 1.06827 -1.22516 0.0117647
-18.9741 -0.93923903 -0.27702001 0.035294101
-25.918501 2.2111499 -0.85440499 0.023529399
-31.385599 -0.14995 -1.1621799 0.031372599
-21.677601 -1.0704499 -0.153514 0.047058798
-29.7237 -0.135599 -0.47479099 0.043137301
-21.707001 -1.0685199 0.240106 0.043137301
-34.917801 -0.15963399 -0.217353 0.0156863
-73.695702 2.89815 -1.46427 0.078431398
-36.813 -0.164362 0.34373799 0.023529399
-63.699699 -5.95081 -0.206282 0.0078431396
-21.7675 -1.06146 1.2946 0.035294101
-20.069401 -0.97450101 1.6918499 0.047058798
-20.618799 -1.92945 1.82481 0.0666667
-72.782303 2.89345 2.4851601 0.109804
-20.1943 -0.97711998 2.06002 0.043137301
-13.3851 -0.64211702 2.1892099 0.094117597
-20.5012 -0.0606107 2.8024001 0.047058798
-20.3468 -0.056705099 3.16362 0.0509804
-20.3379 -0.053101599 3.53229 0.054901998
-13.8942 -0.023313399 3.22261 0.082352899
-7.64294 -0.416778 -0.78232402 0
-8.1969299 -0.44619101 -0.795174 0
-8.7962999 -0.47810301 -0.80017799 0
-9.5496397 -0.51814401 -0.82205403 0
-10.4418 -0.081112303 -0.85075998 0
-11.4142 -0.089848801 -0.86346197 0
-12.6455 -0.100774 -0.892205 0
-14.1883 -0.114756 -0.93268502 0
-16.1766 0.60444999 -0.99761599 0
-18.6625 0.69148999 -1.0560499 0
-22.134701 0.81296802 -1.14985 0
-17.937099 -0.95840502 -0.50105703 0.031372599
-26.656601 0.97147101 -1.23338 0
-18.4578 -0.98349601 -0.224461 0.035294101
-25.8946 2.1114099 -0.85066402 0.0078431396
-29.1339 -0.245867 -0.95955801 0.027450999
-21.597799 -1.1480401 -0.146433 0.0509804
-29.3239 -0.243037 -0.44518501 0.039215699
-21.6789 -1.14897 0.24245401 0.035294101
-31.3423 -0.25695899 -0.023123899 0.027450999
-73.542 2.6200199 -1.45516 0.117647
-75.134804 -7.2961998 -0.54346198 0.0156863
-81.866302 2.9217601 -0.345364 0.137255
-21.9191 -1.1515599 1.29256 0.0117647
-20.1215 -1.0530699 1.6925499 0.0509804
-20.826401 -2.0278101 1.82689 0.082352899
-72.832298 2.62607 2.48769 0.078431398
-29.731899 -1.5540299 2.2263401 0.039215699
-13.3746 -0.69278502 2.18942 0.098039202
-16.0149 -0.100668 2.5683 0.047058798
-20.378201 -0.133506 3.1665201 0.047058798
-20.325399 -0.129489 3.5319099 0.054901998
-14.0171 -0.0771617 3.2360499 0.086274497
-7.57655 -0.43891501 -0.76241797 0
-8.1877604 -0.47341499 -0.79272097 0
-8.7946997 -0.50765699 -0.79989398 0
-9.5517902 -0.55028999 -0.82271397 0
-10.418 -0.115516 -0.845038 0
-11.4256 -0.127791 -0.86564201 0
-12.6293 -0.14221101 -0.88875997 0
-14.1996 -0.161412 -0.93438601 0
-18.7437 0.63337499 -1.06692 0
-22.2244 0.744205 -1.1602401 0
-17.3629 -0.98414201 -0.432556 0.027450999
-27.068899 0.89856499 -1.2768101 0
-18.442699 -1.04268 -0.22268 0.035294101
-25.877199 2.02635 -0.84778202 0.12548999
-27.153099 -0.31426001 -0.78145599 0.027450999
-21.617901 -1.21911 -0.147752 0.054901998
-29.231199 -0.335895 -0.43777701 0.039215699
-21.7309 -1.22207 0.23947001 0.0117647
-31.229401 -0.355896 -0.016207701 0.031372599
-52.222599 -5.25423 -0.80424798 0.043137301
-73.3302 2.3801 -1.44397 0.117647
-33.129601 -0.374084 0.47937101 0.0117647
-64.3936 -6.4618902 -0.22352099 0.0117647
-74.417099 2.4251299 -0.158424 0.070588201
-20.086 -1.11625 1.69319 0.035294101
-21.5522 -2.1679699 1.8319401 0.0078431396
-73.179802 2.4065101 2.49317 0.0156863
-20.2029 -1.11923 2.06165 0.043137301
-13.3402 -0.73476303 2.18872 0.090196103
-15.9185 -0.15159599 2.56374 0.062745102
-20.457399 -0.200092 3.1726799 0.043137301
-20.344601 -0.19520999 3.53423 0.0509804
-13.9689 -0.122347 3.2314301 0.101961
-7.6245198 -0.47200599 -0.77715701 0
-8.1974297 -0.50637698 -0.79569101 0
-8.7888699 -0.54189098 -0.79852998 0
-9.5457802 -0.58729899 -0.82138699 0
-10.4448 -0.156425 -0.85100198 0
-11.4367 -0.172115 -0.86776298 0
-12.6247 -0.190676 -0.88756198 0
-14.2697 -0.216911 -0.94655198 0
-18.5994 0.55843198 -1.04537 0
-17.010201 -1.0288301 -0.390412 0.031372599
-18.259899 -1.10165 -0.20392101 0.035294101
-25.8685 1.92811 -0.84556103 0.92941201
-25.936701 -0.396171 -0.67180198 0.027450999
-21.883801 -1.31683 -0.169503 0.0509804
-28.9704 -0.44103399 -0.418212 0.039215699
-31.187901 -0.47187901 -0.0130239 0.031372599
-73.374298 2.1101 -1.4433399 0.121569
-33.1199 -0.49750599 0.48074999 0
-64.317703 -6.6946402 -0.219484 0.0117647
-124.404 -7.4194598 -0.55954403 0.031372599
-69.2201 -7.1901202 0.87517703 0.090196103
-20.1056 -1.1933399 1.69391 0.047058798
-13.4791 -1.41537 1.7845401 0.0078431396
-83.5392 2.4310601 2.6068699 0.0117647
-20.174601 -1.1938699 2.06197 0.0509804
-13.3094 -0.78402501 2.18823 0.090196103
-15.9976 -0.213138 2.56846 0.0588235
-15.8282 -0.208022 2.8491099 0.047058798
-20.343599 -0.27169701 3.5349 0.054901998
-13.9523 -0.175262 3.2302201 0.105882
-7.6303201 -0.502693 -0.779176 0
-8.1801004 -0.53765303 -0.79100198 0
-8.7790499 -0.57584101 -0.796134 0
-9.5396299 -0.62427199 -0.820059 0
-10.4246 -0.196537 -0.84612799 0
-11.4398 -0.216363 -0.86820698 0
-12.6435 -0.23960701 -0.89098001 0
-14.2058 -0.27015099 -0.934829 0
-18.684401 0.48996699 -1.05671 0
-22.249001 0.577236 -1.1613899 0
-16.2729 -1.04623 -0.302549 0.031372599
-18.2318 -1.16923 -0.200837 0.035294101
-25.863501 1.83025 -0.84371603 0.92941201
-25.0348 -0.47544801 -0.59038001 0.027450999
-22.153299 -1.41677 -0.19156 0.047058798
-26.6749 -0.503914 -0.25278199 0.035294101
-31.1539 -0.58771902 -0.0102652 0.031372599
-73.505402 1.84196 -1.44642 0.105882
-53.304699 -1.015 -0.24851499 0.16470601
-124.419 -7.88025 -0.55587202 0.031372599
-20.097 -1.2688299 1.6946501 0.047058798
-13.3464 -1.45319 1.78432 0.027450999
-13.1649 -0.82856297 1.9403501 0.039215699
-13.2345 -0.83031601 2.1861999 0.078431398
-20.4776 -0.357676 2.8039701 0.027450999
-15.7433 -0.266453 2.84377 0.0509804
-20.402 -0.349278 3.5408299 0.054901998
-13.9394 -0.22813 3.22943 0.109804
-7.6207299 -0.53237498 -0.77656698 0
-8.1856899 -0.57041001 -0.79287201 0
-8.7883902 -0.61106098 -0.79888701 0
-9.54883 -0.66228199 -0.82259202 0
-10.4276 -0.23709001 -0.846668 0
-11.435 -0.26044399 -0.86697501 0
-12.6621 -0.28867999 -0.89439303 0
-14.2913 -0.326592 -0.94979203 0
-22.322399 0.49485201 -1.16967 0
-16.027201 -1.09165 -0.27318701 0.031372599
-25.7302 1.72082 -1.29776 0
-18.0844 -1.22855 -0.18570299 0.039215699
-25.885799 1.73422 -0.84454101 0.92941201
-23.479401 -0.53266299 -0.45057401 0.027450999
-21.9291 -1.48535 -0.172528 0.0509804
-26.5292 -0.600501 -0.241593 0.035294101
-29.582199 -0.66744202 0.0753714 0.031372599
-14.3772 -1.62751 0.99240899 0.035294101
-54.189098 1.1701699 -0.623941 0.0666667
-29.566401 -0.66225803 0.611242 0.027450999
-14.3399 -1.62051 1.26025 0.039215699
-171.784 3.63011 -2.55582 0.0509804
-124.094 -8.3185902 -0.54605299 0.023529399
-14.3257 -1.6161 1.52542 0.035294101
-20.1998 -1.35174 1.69537 0.047058798
-14.3626 -1.61734 1.79106 0.035294101
-31.221201 0.70837802 2.0448899 0.047058798
-13.1337 -0.87699503 1.94036 0.047058798
-13.2431 -0.881643 2.18712 0.062745102
-22.924 -0.489517 2.93312 0.043137301
-15.6623 -0.32436201 2.8387101 0.047058798
-20.376499 -0.42545599 3.5394199 0.0509804
-13.9701 -0.281872 3.2332599 0.105882
-7.6189699 -0.55823499 -0.77631199 0
-8.1876497 -0.59832299 -0.79369301 0
-8.7825203 -0.64030999 -0.79756498 0
-9.5389099 -0.693645 -0.82034397 0
-10.4229 -0.271662 -0.84545201 0
-11.438 -0.298399 -0.86747003 0
-12.6572 -0.33027199 -0.89324701 0
-18.7822 0.36017001 -1.06925 0
-22.2603 0.421707 -1.1611201 0
-15.5561 -1.11061 -0.217062 0.027450999
-17.881901 -1.27315 -0.16505 0.039215699
-25.859301 1.64904 -0.84087402 0.92941201
-22.832399 -0.59101099 -0.392185 0.027450999
-21.5982 -1.53303 -0.144683 0.047058798
-26.423401 -0.68295002 -0.233393 0.035294101
-26.241899 -0.67379498 0.25608301 0.035294101
-14.2845 -1.66447 0.99704999 0.035294101
-54.188499 0.99795997 -0.62236398 0.074509799
-29.5121 -0.75559002 0.61397398 0.039215699
-14.2512 -1.65781 1.26322 0.043137301
-51.882 0.965096 0.406699 0.0039215698
-124.103 -8.7127304 -0.54282898 0.031372599
-14.2927 -1.6597 1.52625 0.031372599
-51.904598 0.97316402 1.34061 0.054901998
-20.2712 -1.42226 1.69599 0.043137301
-14.3176 -1.65969 1.79132 0.043137301
-31.135201 0.60696399 2.04475 0.0588235
-13.1507 -0.921395 1.94113 0.043137301
-13.1445 -0.91832101 2.18417 0.078431398
-20.5502 -0.50266302 2.8092401 0.031372599
-28.397699 -0.69835299 3.7328999 0.101961
-15.7582 -0.37482801 3.13446 0.039215699
-13.9094 -0.32594299 3.22738 0.0588235
-7.60536 -0.58752298 -0.77254498 0
-8.1930199 -0.63116002 -0.79555899 0
-8.7877598 -0.67532402 -0.79928303 0
-9.5517302 -0.73202097 -0.823838 0
-10.3984 -0.311364 -0.83967 0
-11.4368 -0.34256399 -0.86706799 0
-12.6401 -0.37841299 -0.889727 0
-14.2965 -0.42828 -0.95027602 0
-18.7596 0.288766 -1.0652601 0
-22.126699 0.33608001 -1.14352 0
-15.223 -1.14521 -0.17737 0.031372599
-26.937099 0.40366 -1.2574199 0.0117647
-17.829399 -1.33732 -0.15955999 0.039215699
-25.8969 1.5538501 -0.84321398 0.92941201
-22.3482 -0.662211 -0.34832001 0.023529399
-18.086201 -1.35316 0.147973 0.019607799
-26.1443 1.572 -0.39276299 0
-26.3449 -0.77969003 -0.227065 0.035294101
-17.9158 -1.3375 0.49130401 0.039215699
-29.461399 1.76668 -0.118419 0
-26.0755 -0.767196 0.26579201 0.039215699
-14.2544 -1.71611 0.99876601 0.039215699
-51.658199 0.761962 -0.513313 0.0588235
-29.525 -0.86636502 0.61440003 0.035294101
-14.2449 -1.7121201 1.2638 0.043137301
-51.757099 0.771025 0.41143599 0.074509799
-123.628 -9.1369896 -0.53032899 0.031372599
-14.2466 -1.70946 1.5273 0.035294101
-72.897102 1.07867 1.19886 0.0117647
-20.3375 -1.5039001 1.69674 0.047058798
-14.3033 -1.7132699 1.79186 0.043137301
-31.153 0.49105701 2.0458801 0.0509804
-13.1112 -0.96899801 1.941 0.047058798
-13.1169 -0.96676302 2.18382 0.078431398
-15.8885 -0.44394401 2.56511 0.031372599
-15.5078 -0.43024001 2.8290601 0.0666667
-20.3927 -0.568295 3.54246 0.031372599
-15.8523 -0.43465599 3.4330499 0.070588201
-7.62218 -0.61916298 -0.77802098 0
-8.1829205 -0.66281402 -0.79304898 0
-8.7813196 -0.709463 -0.79790801 0
-9.5489302 -0.76926798 -0.82346398 0
-10.4127 -0.35226899 -0.84290898 0
-11.4236 -0.38631001 -0.86415499 0
-12.6425 -0.42712101 -0.89005101 0
-22.135599 0.252803 -1.14382 0
-15.0286 -1.18826 -0.154182 0.035294101
-17.832199 -1.40546 -0.159686 0.0509804
-25.8745 1.4552 -0.83981502 0.133333
-21.628799 -0.72182697 -0.28347999 0.023529399
-18.0214 -1.41694 0.15362 0.039215699
-25.408701 -0.84670401 -0.15934899 0.035294101
-17.763399 -1.39381 0.50161397 0.043137301
-25.9846 -0.86193901 0.271415 0.043137301
-14.2122 -1.7661 1.00105 0.039215699
-51.676601 0.57060599 -0.512398 0.070588201
-63.871799 -2.1333001 -0.62343502 0.0078431396
-14.2186 -1.76399 1.26498 0.043137301
-48.108799 0.54133701 0.50285703 0.0039215698
-123.394 -9.5766897 -0.522192 0.023529399
-14.2441 -1.76422 1.52785 0.035294101
-48.094398 0.54842103 1.36973 0.031372599
-20.3118 -1.57894 1.69751 0.047058798
-14.2809 -1.7658 1.7923599 0.043137301
-31.402399 0.37750199 2.0495501 0.074509799
-13.0515 -1.01478 1.94052 0.0509804
-13.1092 -1.0165499 2.18419 0.082352899
-15.7748 -0.50049698 2.5597799 0.035294101
-15.7213 -0.496093 2.8447299 0.039215699
-20.398199 -0.64521301 3.54386 0.035294101
-15.8027 -0.49314401 3.42856 0.086274497
-7.6125102 -0.64439601 -0.77544898 0
-8.1845798 -0.69076198 -0.79386401 0
-8.7828503 -0.73929203 -0.79864001 0
-9.5618896 -0.802472 -0.82700402 0
-10.4154 -0.387063 -0.84349197 0
-11.438 -0.42472601 -0.86715001 0
-12.6921 -0.47071701 -0.89966702 0
-18.705601 0.156533 -1.0562299 0
-22.1085 0.181141 -1.13974 0
-14.993 -1.2347701 -0.14992 0.043137301
-17.181101 -1.41064 -0.093732201 0.0588235
-25.938601 1.37499 -0.844917 0.035294101
-21.172501 -0.77472699 -0.24227101 0.023529399
-17.981001 -1.47251 0.157185 0.043137301
-25.3421 -0.92603397 -0.154028 0.039215699
-17.6833 -1.44531 0.50713903 0.043137301
-28.427799 1.50899 -0.053676199 0
-25.989599 -0.94571602 0.27175599 0.039215699
-14.2422 -1.8170201 0.99986702 0.035294101
-40.272598 0.32559299 -0.028214199 0.0509804
-63.9566 -2.33922 -0.62487698 0.023529399
-14.2248 -1.81194 1.2651401 0.039215699
-125.141 0.94539601 -1.38915 0.031372599
-14.2582 -1.81322 1.5281301 0.035294101
-75.238403 0.59588897 1.18722 0.0156863
-20.2388 -1.63906 1.69818 0.043137301
-14.3149 -1.8173701 1.79312 0.031372599
-31.7353 0.27960399 2.0540299 0.0588235
-13.1877 -1.06875 1.9434201 0.0509804
-13.1576 -1.06362 2.18645 0.121569
-15.7171 -0.54975897 2.5573101 0.043137301
-15.7116 -0.54689503 2.84464 0.043137301
-16.095301 -0.55762202 3.1661501 0.0509804
-15.3 -0.526676 3.3761301 0.094117597
-7.6138601 -0.67486602 -0.776299 0
-8.1627703 -0.72133398 -0.78807199 0
-8.7800198 -0.77372402 -0.79829001 0
-9.5472202 -0.83875197 -0.82372999 0
-10.3983 -0.42682001 -0.839508 0
-11.4402 -0.46906 -0.86757499 0
-12.6353 -0.51718199 -0.88844597 0
-22.2439 0.098222002 -1.1559401 0.0078431396
-14.4422 -1.24526 -0.084382802 0.047058798
-26.915899 0.115033 -1.25244 0
-16.8664 -1.44942 -0.061801199 0.035294101
-25.947399 1.2778701 -0.84456003 0.0156863
-20.9226 -0.84439498 -0.219477 0.027450999
-17.947599 -1.5382 0.16019 0.043137301
-25.2985 -1.01946 -0.150291 0.039215699
-17.6499 -1.50989 0.50963902 0.043137301
-25.9699 -1.04247 0.27351999 0.039215699
-14.2393 -1.87183 1.00028 0.035294101
-40.029598 0.174998 -0.0166377 0.0666667
-26.5264 -1.0606 0.72489798 0
-14.2615 -1.87176 1.26445 0.039215699
-44.3004 0.196336 0.59919 0.062745102
-14.299 -1.87365 1.52817 0.027450999
-44.324799 0.20320199 1.39794 0.047058798
-15.5132 -1.3178101 1.6993099 0.019607799
-14.3794 -1.88104 1.79416 0.0078431396
-31.700001 0.16113301 2.05463 0.043137301
-15.9334 -1.35021 1.99261 0.035294101
-13.1375 -1.11253 2.1863999 0.062745102
-15.8585 -0.61505598 2.5654299 0.062745102
-15.8967 -0.61385399 2.8583801 0.0509804
-16.037201 -0.61637098 3.1618099 0.054901998
-15.5879 -0.59604698 3.40733 0.094117597
-7.5998302 -0.70397598 -0.77252501 0
-8.1638403 -0.75383598 -0.788836 0
-8.7732201 -0.80779302 -0.79690897 0
-9.5556297 -0.87702799 -0.82624501 0
-10.4277 -0.468602 -0.84634501 0
-11.411 -0.51197898 -0.86131102 0
-12.6607 -0.56698501 -0.89337403 0
-18.7062 0.0149112 -1.05503 0
-22.2838 0.0144019 -1.16019 0.0117647
-14.2989 -1.28804 -0.067349702 0.039215699
-26.8405 0.0141865 -1.2434601 0
-16.781601 -1.5063601 -0.053131901 0.035294101
-26.0035 1.18276 -0.84877598 0.0117647
-20.8118 -0.91846299 -0.20913801 0.027450999
-17.846399 -1.59768 0.16881201 0.043137301
-25.306499 -1.11489 -0.150258 0.039215699
-17.616301 -1.57424 0.51214099 0.043137301
-25.9778 -1.1403199 0.27378899 0.031372599
-14.3431 -1.94083 0.99563599 0.035294101
-40.0019 0.026134299 -0.0141875 0.0588235
-21.837799 -0.953049 0.89438403 0.019607799
-14.3535 -1.93924 1.26214 0.027450999
-36.8349 0.032612 0.78361797 0.039215699
-14.387 -1.9407099 1.52768 0
-36.845299 0.038307998 1.44953 0.039215699
-15.4723 -1.37357 1.69991 0.0588235
-69.655403 -9.2344103 2.14358 0.074509799
-36.9039 0.043987799 2.11291 0.047058798
-15.9601 -1.41343 1.99379 0.039215699
-13.1292 -1.1623501 2.18677 0.0666667
-15.8241 -0.673787 2.5643101 0.062745102
-15.8782 -0.67339998 2.85782 0.047058798
-16.0585 -0.67812502 3.16448 0.054901998
-15.2397 -0.64030802 3.37134 0.101961
-7.6009498 -0.73442698 -0.77337098 0
-8.1533003 -0.78527302 -0.78631997 0
-8.7662897 -0.84182298 -0.79552603 0
-9.5600204 -0.91501898 -0.82779098 0
-10.4181 -0.50867599 -0.84415901 0
-11.4285 -0.55700898 -0.86507303 0
-18.721901 -0.055985302 -1.05668 0
-22.232 -0.069297701 -1.15301 0.0078431396
-14.1081 -1.32537 -0.044678699 0.043137301
-16.7561 -1.56821 -0.050473101 0.039215699
-20.7446 -0.99384499 -0.202711 0.027450999
-18.026899 -1.6825 0.15399 0.023529399
-25.362 -1.21269 -0.15363599 0.035294101
-17.6024 -1.6402 0.51334798 0.043137301
-21.732401 -1.03408 0.50255501 0.027450999
-64.080498 -8.7782803 -1.3547601 0.239216
-36.756599 -0.109932 0.124151 0.0509804
-21.8022 -1.0336601 0.896308 0.027450999
-68.978897 -9.43225 -0.34107301 0.156863
-36.8027 -0.104392 0.78557903 0.047058798
-95.8536 -8.8139296 -0.0165249 0.0156863
-68.9739 -9.4176903 0.89915198 0.0078431396
-36.885101 -0.098951802 1.45044 0.027450999
-15.483 -1.43378 1.70052 0.047058798
-69.628899 -9.4926996 2.1465001 0.078431398
-20.0091 -1.84462 2.06654 0.027450999
-20.8557 -1.91773 2.4621601 0.023529399
-13.3395 -0.61713701 2.43397 0.047058798
-16.0907 -0.74364501 2.8735399 0.047058798
-16.083599 -0.740237 3.16751 0.0509804
-15.4636 -0.70863199 3.3958399 0.133333
-7.61761 -0.76208699 -0.77887702 0
-8.1392603 -0.81169403 -0.78275698 0
-8.7750902 -0.87240797 -0.79830801 0
-9.5454597 -0.94585001 -0.82456499 0
-10.4242 -0.543742 -0.84563297 0
-11.4462 -0.59586698 -0.868891 0
-22.219801 -0.140991 -1.1509 0.0039215698
-14.1038 -1.37156 -0.044199798 0.039215699
-27.651199 -0.178913 -1.32895 0
-16.687599 -1.61665 -0.0435008 0.039215699
-26.3451 1.01372 -0.879412 0.078431398
-20.693501 -1.05845 -0.197809 0.027450999
-21.672199 -1.10507 0.110646 0.027450999
-17.613001 -1.69886 0.51290202 0.043137301
-21.701 -1.10277 0.50472099 0.031372599
-58.460899 -8.2011499 -1.08829 0.152941
-36.792 -0.22751801 0.123648 0.0509804
-21.7827 -1.10316 0.89754999 0.027450999
-69.020103 -9.6607103 -0.340711 0.16470601
-96.046997 -0.63119698 -0.66238201 0.027450999
-63.9856 -6.09341 0.55274898 0.0039215698
-68.999298 -9.6438398 0.90096599 0.0078431396
-21.069201 -2.01408 1.70122 0.0666667
-69.646202 -9.7197199 2.1492801 0.086274497
-31.519501 -0.175429 2.0555401 0.0078431396
-20.3853 -1.94539 2.0740299 0.031372599
-21.0763 -2.0063701 2.4709301 0.039215699
-13.3972 -0.66377503 2.4375501 0.035294101
-13.4261 -0.662862 2.68646 0.062745102
-13.8326 -0.68049401 2.96979 0.047058798
-15.1075 -0.74133098 3.3589001 0.113725
-7.6185198 -0.792629 -0.77971798 0
-8.1476498 -0.84492302 -0.78570002 0
-8.7910099 -0.90874898 -0.80309498 0
-9.5457296 -0.98346198 -0.82514203 0
-10.4298 -0.58462799 -0.847049 0
-11.4517 -0.640499 -0.870139 0
-14.1907 -0.78997701 -0.93071502 0
-22.258699 -0.225137 -1.15514 0.0078431396
-13.9208 -1.4076999 -0.022482401 0.039215699
-25.852699 -0.26220301 -1.13511 0
-16.6894 -1.68077 -0.043640599 0.035294101
-20.494499 -1.12572 -0.17966001 0.027450999
-21.6719 -1.18688 0.111143 0.031372599
-17.6105 -1.76594 0.51333803 0.043137301
-21.7127 -1.18531 0.50464702 0.027450999
-49.674599 -0.50277299 -0.41858599 0.019607799
-63.657001 -3.4744401 -0.60515201 0.039215699
-68.996101 -9.9174604 -0.33817899 0.16078401
-94.508499 -0.96912497 -0.62178802 0.027450999
-128.34 -1.30683 0.84731698 0.043137301
-21.674601 -2.1537001 1.70209 0.019607799
-69.609901 -9.9768896 2.15218 0.0078431396
-23.559401 -0.21126699 1.96824 0.0588235
-13.2016 -1.31678 1.94657 0.043137301
-12.8215 -1.27669 2.1777599 0.094117597
-15.8675 -0.84796 2.56868 0.043137301
-13.4313 -0.71448302 2.68751 0.0588235
-13.8537 -0.73443198 2.9724 0.054901998
-15.9347 -0.84287399 3.44734 0.0588235
-7.6002698 -0.82118899 -0.77478302 0
-8.1329603 -0.87581801 -0.78208601 0
-8.7721796 -0.94159502 -0.79861701 0
-9.5535898 -1.0219001 -0.827645 0
-10.4081 -0.62392998 -0.842152 0
-11.457 -0.68518001 -0.87138301 0
-14.1876 -0.84422898 -0.93019199 0
-22.2577 -0.30897099 -1.1544 0.0078431396
-14.2157 -1.49194 -0.057641398 0.019607799
-27.072399 -0.37748599 -1.26526 0
-16.7029 -1.74615 -0.0449761 0.035294101
-20.450399 -1.20067 -0.175364 0.027450999
-21.6434 -1.26706 0.113637 0.031372599
-17.6395 -1.83629 0.51170498 0.043137301
-33.116798 -0.448623 0.28083301 0.023529399
-63.587898 -3.70665 -0.60087699 0.062745102
-63.6385 -9.3911505 -0.179483 0.121569
-33.132702 -0.44357201 0.87844002 0.027450999
-73.722397 -7.5679002 0.38437101 0.0117647
-63.184299 -9.3114901 0.97233099 0.30588201
-33.146099 -0.438463 1.47846 0.023529399
-21.547001 -2.22298 1.70294 0.019607799
-23.522301 -0.29914299 1.9686199 0.070588201
-13.1727 -1.3647701 1.9466701 0.054901998
-12.8404 -1.32813 2.1791301 0.047058798
-13.4794 -0.77101898 2.4431701 0.043137301
-13.4444 -0.766608 2.6891301 0.054901998
-13.795 -0.78399003 2.9679999 0.054901998
-15.9154 -0.90229899 3.4462399 0.054901998
-7.5823698 -0.84534299 -0.76989299 0
-8.14925 -0.905357 -0.787256 0
-8.7729797 -0.97149402 -0.799335 0
-9.5541401 -1.05425 -0.82827199 0
-10.3905 -0.65756798 -0.838211 0
-14.1298 -0.88726997 -0.91992801 0
-22.201 -0.379821 -1.1468101 0.0078431396
-12.0503 -1.30821 0.199852 0.031372599
-26.128599 -0.447402 -1.16338 0.0117647
-16.740801 -1.80513 -0.0488021 0.035294101
-20.247601 -1.25446 -0.156978 0.027450999
-17.689199 -1.89943 0.50868201 0.039215699
-52.1623 -3.2155001 -1.12748 0.0039215698
-33.115101 -0.55451 0.281771 0
-63.843201 -3.9247301 -0.60850102 0.0078431396
-83.112701 -1.41844 -0.338597 0.019607799
-69.100403 -7.3160601 0.468169 0.109804
-128.38 -2.18505 0.85471499 0.043137301
-21.4086 -2.2786 1.70365 0
-62.5224 -9.4040699 2.1118701 0.184314
-23.4772 -0.37403899 1.9687999 0.062745102
-13.1364 -1.40455 1.94656 0.043137301
-12.8201 -1.36854 2.1789999 0.070588201
-13.2734 -0.80275899 2.4328401 0.0509804
-13.3382 -0.80429101 2.68224 0.0588235
-13.506 -0.81175798 2.94315 0.070588201
-15.8885 -0.95252699 3.4442101 0.074509799
-7.59058 -0.87664801 -0.773036 0
-8.1458197 -0.93746102 -0.786915 0
-8.76546 -1.00546 -0.79794002 0
-9.5308704 -1.08936 -0.82305402 0
-10.4152 -0.699714 -0.84412402 0
-22.004999 -0.45917299 -1.12176 0.0078431396
-11.8518 -1.33319 0.22336 0.035294101
-25.410999 -0.52981502 -1.08574 0.019607799
-14.3683 -1.60815 0.190998 0.035294101
-20.207001 -1.3285 -0.153038 0.027450999
-14.3571 -1.6040699 0.45980299 0.035294101
-14.357 -1.60146 0.72643298 0.035294101
-45.910301 1.07976 -1.09816 0.043137301
-49.7024 -1.02992 -0.415438 0.0039215698
-67.605904 -4.4070902 -0.74151099 0.0666667
-62.537601 -9.6688995 -0.14420401 0.121569
-80.891998 -1.67856 -0.281955 0.027450999
-14.3948 -1.5980099 1.43635 0.019607799
-62.518398 -9.6529398 0.98412901 0.196078
-29.475 -0.591281 1.5044399 0.0156863
-62.526901 -9.6412096 2.1147799 0.223529
-23.5315 -0.46327499 1.97021 0.070588201
-13.143 -1.45603 1.94731 0.039215699
-13.1169 -1.45037 2.19034 0.062745102
-13.3619 -0.85930598 2.43819 0.054901998
-13.5978 -0.87201703 2.7013099 0.0588235
-13.5306 -0.86500502 2.94611 0.0666667
-15.9363 -1.01598 3.4502699 0.082352899
-7.5606298 -0.903624 -0.76463598 0
-8.14991 -0.97043997 -0.788755 0
-8.71173 -1.03406 -0.78420299 0
-9.5113297 -1.12475 -0.81879902 0
-10.3892 -0.73847699 -0.83832002 0
-21.709499 -0.534558 -1.0843 0.0117647
-11.7165 -1.36394 0.239343 0.031372599
-23.7271 -0.58236802 -0.90453398 0.019607799
-14.3068 -1.65667 0.197181 0.039215699
-19.9277 -1.3857 -0.127819 0.027450999
-14.2718 -1.64982 0.46697599 0.039215699
-14.2676 -1.64675 0.73245502 0.039215699
-43.794102 0.86944503 -0.96919799 0.043137301
-29.530199 -0.71246397 0.43456101 0.031372599
-63.800598 -4.3961301 -0.60343897 0.0078431396
-62.4977 -9.89956 -0.141412 0.117647
-29.5201 -0.70738697 0.96923602 0.0509804
-14.2536 -1.63757 1.43932 0.031372599
-62.589199 -9.9008598 0.98559701 0.113725
-29.4125 -0.69990498 1.50582 0.0117647
-14.3635 -1.64713 1.70382 0.035294101
-62.5266 -9.8778801 2.1176901 0.25097999
-20.406601 -0.47536001 1.93595 0.074509799
-13.1533 -1.50802 1.94813 0.047058798
-12.5791 -1.44064 2.1717899 0.062745102
-13.2629 -0.90377802 2.43362 0.0588235
-13.1286 -0.89225298 2.66888 0.062745102
-13.1932 -0.893987 2.9170899 0.062745102
-13.7138 -0.92669302 3.2154901 0.082352899
-7.5615101 -0.92974401 -0.76551402 0
-8.1391296 -0.99705303 -0.78627503 0
-8.7199097 -1.06471 -0.78697199 0
-9.5269699 -1.15883 -0.823277 0
-10.3867 -0.77303398 -0.83797801 0
-12.6277 -0.93420899 -0.88750798 0
-21.8624 -0.60913903 -1.1030101 0
-11.6411 -1.39428 0.248208 0.031372599
-22.8902 -0.63492697 -0.81432998 0.023529399
-14.2303 -1.69513 0.204878 0.047058798
-19.907301 -1.44903 -0.125762 0.027450999
-14.2585 -1.69556 0.468137 0.043137301
-14.2742 -1.69478 0.73218203 0.039215699
-39.2813 0.65934402 -0.69643998 0.035294101
-29.5238 -0.80694801 0.43558601 0.035294101
-63.989799 -4.61308 -0.608706 0.0078431396
-62.533298 -10.1085 -0.141064 0.105882
-29.4617 -0.80035901 0.97145098 0.062745102
-14.2523 -1.68459 1.43975 0.031372599
-62.597099 -10.1055 0.98746002 0.113725
-20.3057 -0.541843 1.56555 0.070588201
-14.3224 -1.68987 1.7043101 0.035294101
-62.562302 -10.0867 2.12044 0.235294
-20.5208 -0.54440498 1.93785 0.031372599
-13.1603 -1.55248 1.94881 0.035294101
-12.7014 -1.49657 2.17679 0.062745102
-13.3276 -0.951985 2.43764 0.031372599
-13.1773 -0.93887699 2.6729701 0.062745102
-13.1425 -0.93374598 2.9133 0.062745102
-8.6793499 -0.61627001 2.68188 0.070588201
-7.56179 -0.960163 -0.766343 0
-8.1086302 -1.0258501 -0.77828699 0
-8.7580996 -1.1040699 -0.79791099 0
-9.5033398 -1.19363 -0.81805497 0
-10.3721 -0.81244701 -0.83487302 0
-21.074499 -0.66602999 -1.00409 0
-11.624 -1.43767 0.25010201 0.031372599
-21.7309 -0.68370098 -0.68954498 0.023529399
-14.2516 -1.75279 0.20267101 0.035294101
-18.0266 -1.38121 0.042234201 0.023529399
-14.2284 -1.7471 0.47070101 0.047058798
